VERSION .7
FIELDS x y z
SIZE 4 4 4
TYPE F F F
COUNT 1 1 1
WIDTH 1083
HEIGHT 1
VIEWPOINT 0 0 0 1 0 0 0
POINTS 1083
DATA ascii
3.78801417351 -5.32686471939 -0.518037438393
3.3386952877 -5.35156726837 -0.516591727734
2.88937616348 -5.37626981735 -0.515146017075
5.60997772217 -5.67735433578 -0.528401017189
5.16065835953 -5.70205640793 -0.526955246925
4.71133899689 -5.72675895691 -0.525509536266
4.26202011108 -5.75146150589 -0.524063825607
3.81270074844 -5.77616405487 -0.522618055344
3.36338186264 -5.80086612701 -0.521172344685
2.91406273842 -5.82556867599 -0.519726634026
5.63466405869 -6.12665319443 -0.53298163414
5.18534469604 -6.15135574341 -0.531535923481
5.65935087204 -6.57595205307 -0.537562251091
5.68403720856 -7.02525091171 -0.542142927647
5.70872402191 -7.47455024719 -0.546723544598
5.25940465927 -7.49925231934 -0.545277833939
5.28409147263 -7.94855117798 -0.54985845089
6.20741605759 -8.34844589233 -0.557330548763
5.75809717178 -8.37314796448 -0.555884838104
5.30877780914 -8.39785003662 -0.554439067841
1.0887093544 -5.46609067917 -1.40931165218
2.43836212158 -5.39647769928 -0.963674664497
1.98904323578 -5.42118024826 -0.962228894234
1.5397233963 -5.44588279724 -0.96078312397
2.44005703926 -5.40097236633 -0.513700246811
1.99073791504 -5.42567443848 -0.512254476547
1.54141807556 -5.45037698746 -0.510808765888
6.23040771484 -8.79325008392 -1.0118855238
5.78108882904 -8.81795310974 -1.01043987274
5.3317694664 -8.84265518188 -1.00899410248
6.23210287094 -8.79774475098 -0.561911165714
5.7827835083 -8.82244682312 -0.560465455055
10.2911052704 -0.490304946899 2.20592880249
9.84178543091 -0.51500749588 2.20737457275
11.2178192139 -0.899188041687 3.09840536118
6.18938493729 0.208442687988 -0.0217699743807
8.01134872437 -0.142046451569 -0.0321335457265
7.56202888489 -0.166749000549 -0.0306878089905
7.11270999908 -0.19145154953 -0.0292420722544
6.66339063644 -0.216153621674 -0.0277963355184
6.21407175064 -0.240856170654 -0.0263505987823
8.93467330933 -0.541940689087 -0.0396056473255
8.48535346985 -0.56664276123 -0.0381599068642
8.03603458405 -0.591345310211 -0.0367141738534
8.95935916901 -0.991239547729 -0.0441862791777
8.5100402832 -1.01594161987 -0.0427405387163
6.19108009338 0.203948497772 0.428204387426
8.01304340363 -0.146540641785 0.41784080863
7.56372356415 -0.171243190765 0.419286549091
7.11440467834 -0.195945739746 0.42073225975
6.66508579254 -0.22064781189 0.422178000212
6.2157664299 -0.24535036087 0.423623740673
8.93636798859 -0.546434879303 0.410368710756
8.48704910278 -0.571136951447 0.411814451218
8.03772926331 -0.595839500427 0.413260191679
8.96105384827 -0.995733737946 0.405788093805
8.51173496246 -1.02043581009 0.407233834267
6.19277477264 0.199453830719 0.878178715706
8.46405696869 -0.126332759857 0.866369366646
8.01473808289 -0.151035308838 0.867815136909
7.56541872025 -0.175737857819 0.869260907173
7.1160993576 -0.200440406799 0.870706677437
6.6667804718 -0.225142478943 0.872152328491
6.217461586 -0.249845027924 0.873598098755
8.93806266785 -0.550929546356 0.86034309864
8.48874378204 -0.5756316185 0.861788749695
8.03942489624 -0.60033416748 0.863234519958
7.5901055336 -0.625036716461 0.864680290222
7.14078617096 -0.649739265442 0.866126060486
6.69146728516 -0.674441337585 0.86757171154
6.24214792252 -0.699143886566 0.869017481804
8.9627494812 -1.000228405 0.855762481689
8.06411170959 -1.04963302612 0.858653903008
7.61479187012 -1.0743355751 0.860099673271
7.16547298431 -1.09903812408 0.861545443535
6.19446992874 0.194959640503 1.32815301418
8.01643276215 -0.155529499054 1.31778943539
7.56711387634 -0.180232048035 1.31923520565
7.1177945137 -0.204934597015 1.32068097591
6.21915626526 -0.25433921814 1.32357239723
8.93975734711 -0.555423736572 1.31031739712
8.4904384613 -0.580125808716 1.31176316738
8.0411195755 -0.604828357697 1.31320881844
7.59180021286 -0.629530906677 1.3146545887
7.14248132706 -0.654233455658 1.31610035896
6.69316196442 -0.678935527802 1.31754612923
6.24384307861 -0.703638076782 1.31899178028
8.96444416046 -1.00472259521 1.30573678017
8.51512527466 -1.02942466736 1.30718255043
8.06580638885 -1.05412721634 1.30862820148
7.61648702621 -1.07882976532 1.31007397175
7.16716766357 -1.1035323143 1.31151974201
6.71784877777 -1.12823438644 1.31296551228
6.196164608 0.19046497345 1.77812743187
6.22085142136 -0.258833885193 1.77354681492
8.94145202637 -0.559918403625 1.7602918148
8.49213409424 -0.584620475769 1.76173758507
8.04281425476 -0.60932302475 1.76318323612
7.14417600632 -0.658728122711 1.76607477665
6.69485712051 -0.683430194855 1.76752054691
6.24553775787 -0.708132743835 1.76896619797
8.96613883972 -1.00921726227 1.75571119785
8.51681995392 -1.03391933441 1.75715696812
8.06750106812 -1.05862188339 1.75860261917
7.61818170547 -1.08332443237 1.76004838943
7.16886281967 -1.10802698135 1.7614941597
6.71954345703 -1.1327290535 1.76293992996
6.27022457123 -1.15743160248 1.76438558102
17.219909668 -3.69168806076 -0.10227394104
19.491191864 -4.01747512817 -0.114083245397
19.0418720245 -4.04217720032 -0.112637512386
18.5925540924 -4.0668797493 -0.111191779375
17.2445964813 -4.14098739624 -0.106854572892
19.0435676575 -4.04667186737 0.337336838245
18.594247818 -4.07137441635 0.338782578707
17.2462921143 -4.14548158646 0.343119770288
18.5959434509 -4.07586860657 0.788756966591
14.9486293793 -3.36590147018 -0.0904646292329
14.4993095398 -3.39060401917 -0.0890188887715
14.0499897003 -3.41530656815 -0.0875731557608
13.6006698608 -3.44000887871 -0.0861274152994
16.7705898285 -3.71639060974 -0.100828200579
16.3212718964 -3.74109315872 -0.0993824601173
15.8719520569 -3.76579546928 -0.0979367271066
15.4226341248 -3.79049801826 -0.0964909940958
14.9733142853 -3.81520032883 -0.0950452536345
14.5239944458 -3.83990287781 -0.0935995206237
16.7952766418 -4.16568946838 -0.105408832431
16.3459587097 -4.19039201736 -0.103963091969
14.9503231049 -3.37039589882 0.3595097363
14.5010032654 -3.3950984478 0.360955446959
14.0516834259 -3.41980075836 0.36240118742
13.6023654938 -3.44450330734 0.363846927881
16.7722854614 -3.72088503838 0.349146157503
16.3229675293 -3.74558734894 0.350591897964
15.8736476898 -3.77028989792 0.352037638426
15.4243297577 -3.7949924469 0.353483378887
14.9750099182 -3.81969475746 0.354929119349
14.5256900787 -3.84439706802 0.356374830008
16.7969722748 -4.17018413544 0.34456551075
16.3476524353 -4.19488620758 0.346011251211
14.9520187378 -3.37489032745 0.809484124184
14.5026988983 -3.39959263802 0.810929894447
14.0533790588 -3.424295187 0.812375545502
13.604060173 -3.44899749756 0.813821315765
16.3246612549 -3.75008201599 0.800566196442
15.8753433228 -3.77478432655 0.802011966705
15.4260234833 -3.79948663712 0.803457736969
14.9767055511 -3.8241891861 0.804903388023
14.5273857117 -3.84889173508 0.806349158287
14.0780658722 -3.87359404564 0.807794928551
16.3493480682 -4.19938087463 0.795985579491
15.9000301361 -4.22408342361 0.797431349754
15.0013923645 -4.27348804474 0.800322771072
14.1027526855 -4.3228931427 0.8032143116
14.5043926239 -3.40408706665 1.26090407372
14.5290794373 -3.85338592529 1.25632345676
14.0797595978 -3.87808847427 1.25776922703
14.1044464111 -4.32738733292 1.25318861008
10.4060630798 -2.71432805061 -0.066845998168
9.95674419403 -2.73903036118 -0.0654002651572
12.6773452759 -3.04011464119 -0.0786553174257
12.2280263901 -3.06481695175 -0.0772095769644
11.7787075043 -3.08951950073 -0.075763836503
11.3293876648 -3.11422204971 -0.0743181034923
10.8800697327 -3.13892436028 -0.0728723704815
10.4307498932 -3.16362690926 -0.0714266300201
13.151350975 -3.46471118927 -0.0846816822886
12.7020320892 -3.48941373825 -0.0832359418273
12.2527122498 -3.51411628723 -0.0817902088165
10.4077587128 -2.71882247925 0.383128345013
9.95843887329 -2.74352478981 0.384574085474
12.6790409088 -3.04460906982 0.371319055557
12.2297210693 -3.0693116188 0.372764796019
11.7804021835 -3.09401392937 0.37421053648
11.3310832977 -3.11871647835 0.375656276941
10.8817634583 -3.14341878891 0.3771019876
10.4324455261 -3.16812133789 0.378547728062
13.1530456543 -3.46920585632 0.365292668343
12.7037277222 -3.49390816689 0.366738408804
12.2544078827 -3.51861047745 0.368184149265
10.409453392 -2.72331690788 0.833102703094
9.96013355255 -2.74801921844 0.834548473358
12.6807355881 -3.04910326004 0.821293473244
12.2314167023 -3.07380580902 0.822739124298
11.7820968628 -3.098508358 0.824184894562
11.332777977 -3.12321066856 0.825630664825
10.8834590912 -3.14791321754 0.82707631588
10.4341402054 -3.17261552811 0.828522086143
13.1547412872 -3.47370004654 0.815267086029
12.7054214478 -3.49840259552 0.816712856293
12.256102562 -3.52310490608 0.818158507347
11.8067836761 -3.54780721664 0.819604277611
11.8314704895 -3.99710631371 0.815023541451
11.8561573029 -4.44640541077 0.8104429245
10.4111480713 -2.7278110981 1.28307712078
9.96182823181 -2.75251340866 1.28452289104
11.7837924957 -3.10300254822 1.27415919304
11.3344726562 -3.1277050972 1.27560484409
10.8851537704 -3.15240764618 1.27705061436
10.4358348846 -3.17710995674 1.27849638462
9.98651504517 -3.20181250572 1.27994215488
11.8084793091 -3.5523018837 1.26957857609
11.3591594696 -3.57700419426 1.27102422714
10.9098405838 -3.60170650482 1.27246999741
10.460521698 -3.6264090538 1.27391576767
10.0112018585 -3.65111160278 1.27536153793
11.8331661224 -4.00160074234 1.26499795914
11.383846283 -4.02630329132 1.26644361019
10.9345273972 -4.05100536346 1.26788938046
10.4852085114 -4.07570791245 1.26933515072
10.0358886719 -4.10041046143 1.27078092098
11.8578519821 -4.45089960098 1.26041734219
10.4128437042 -2.73230552673 1.73305153847
11.785487175 -3.10749721527 1.72413361073
10.4375305176 -3.18160438538 1.72847080231
11.8101739883 -3.55679607391 1.71955299377
11.3608551025 -3.58149862289 1.72099864483
10.4622173309 -3.63090348244 1.72389018536
11.3855409622 -4.03079748154 1.71641802788
10.9362220764 -4.05550003052 1.71786379814
10.4869031906 -4.08020210266 1.71930956841
10.9609088898 -4.50479888916 1.71328318119
11.6918258667 -1.32378435135 3.09237885475
11.2425060272 -1.34848690033 3.09382462502
8.98404598236 -1.44053816795 -0.0487669035792
8.53472709656 -1.46524071693 -0.0473211705685
9.00873279572 -1.88983726501 -0.0533475354314
8.55941390991 -1.914539814 -0.05190179497
9.03341960907 -2.33913636208 -0.0579281672835
8.58410072327 -2.36383891106 -0.0564824268222
9.50742530823 -2.76373291016 -0.0639545321465
9.05810546875 -2.78843522072 -0.0625087916851
8.60878658295 -2.8131377697 -0.061063054949
8.68284606934 -4.16103458405 -0.0748049467802
8.23352813721 -4.18573713303 -0.0733592063189
8.25821399689 -4.63503599167 -0.077939838171
8.98574066162 -1.44503259659 0.401207447052
8.53642177582 -1.46973514557 0.402653187513
9.01042747498 -1.89433169365 0.396626830101
8.56110858917 -1.91903424263 0.398072570562
9.03511428833 -2.34363079071 0.392046183348
8.58579540253 -2.36833333969 0.393491923809
9.50911998749 -2.76822733879 0.386019825935
9.05980110168 -2.79292964935 0.387465566397
8.61048126221 -2.81763219833 0.388911306858
8.23522281647 -4.19023132324 0.376615166664
8.25990867615 -4.63953018188 0.372034519911
8.98743629456 -1.44952702522 0.851181864738
9.01212310791 -1.89882612228 0.846601128578
8.56280326843 -1.92352867126 0.848046898842
9.03680896759 -2.34812521935 0.842020511627
8.58749008179 -2.37282776833 0.843466281891
9.51081466675 -2.77272176743 0.835994243622
9.06149578094 -2.79742407799 0.837439894676
8.61217689514 -2.82212662697 0.83888566494
8.23691749573 -4.1947259903 0.826589465141
7.33827877045 -4.24413061142 0.829481005669
6.88895988464 -4.2688331604 0.830926656723
6.43964099884 -4.29353570938 0.832372426987
8.26160430908 -4.64402484894 0.82200884819
7.8122844696 -4.66872692108 0.823454618454
7.3629655838 -4.69342947006 0.824900388718
6.913646698 -4.71813201904 0.826346039772
6.46432733536 -4.74283456802 0.827791810036
8.98913097382 -1.45402121544 1.30115616322
7.19185447693 -1.55283093452 1.30693912506
6.74253511429 -1.57753348351 1.30838489532
9.01381778717 -1.9033203125 1.29657554626
8.56449890137 -1.92802286148 1.29802131653
8.58918476105 -2.37732195854 1.29344069958
9.51251029968 -2.77721595764 1.2859685421
9.06319046021 -2.8019182682 1.28741431236
8.6138715744 -2.82662081718 1.28886008263
9.53719615936 -3.22651481628 1.28138780594
9.08787727356 -3.25121736526 1.2828335762
8.63855838776 -3.27591991425 1.28427934647
9.56188297272 -3.67581391335 1.27680718899
9.11256408691 -3.70051646233 1.27825295925
8.66324424744 -3.72521877289 1.27969872952
9.58656978607 -4.12511253357 1.27222657204
9.13725090027 -4.14981555939 1.2736723423
8.68793106079 -4.17451763153 1.27511811256
8.23861217499 -4.19922018051 1.27656376362
7.78929328918 -4.22392272949 1.27800953388
7.33997392654 -4.24862480164 1.27945530415
6.8906545639 -4.27332735062 1.28090107441
6.4413356781 -4.2980298996 1.28234672546
8.26329898834 -4.64851903915 1.27198314667
7.8139796257 -4.67322158813 1.27342891693
7.36466026306 -4.69792413712 1.27487468719
6.91534137726 -4.72262620926 1.27632045746
6.46602249146 -4.74732875824 1.27776610851
8.99082565308 -1.45851564407 1.7511305809
8.54150676727 -1.48321819305 1.75257635117
8.09218788147 -1.50792050362 1.75402200222
7.64286851883 -1.5326230526 1.75546777248
7.19354915619 -1.55732536316 1.75691354275
6.74423027039 -1.58202791214 1.75835931301
6.29491090775 -1.6067302227 1.75980496407
9.01551246643 -1.90781474113 1.74654996395
8.56619358063 -1.93251729012 1.74799573421
8.11687469482 -1.95721960068 1.74944138527
7.66755485535 -1.98192214966 1.75088715553
7.21823596954 -2.00662446022 1.7523329258
6.7689166069 -2.0313270092 1.75377869606
6.3195977211 -2.05602931976 1.75522434711
8.59087944031 -2.38181638718 1.74341511726
8.14156150818 -2.40651869774 1.74486076832
7.6922416687 -2.43122124672 1.74630653858
7.2429227829 -2.45592355728 1.74775230885
6.79360342026 -2.48062610626 1.74919807911
8.61556625366 -2.83111524582 1.73883450031
8.64025306702 -3.28041410446 1.73425376415
8.66493988037 -3.72971343994 1.7296731472
8.68962669373 -4.17901229858 1.72509253025
8.59257507324 -2.38631081581 2.19338917732
8.14325618744 -2.41101312637 2.19483494759
7.69393634796 -2.43571567535 2.19628071785
7.24461746216 -2.46041798592 2.19772624969
6.79529857635 -2.4851205349 2.19917201996
8.5942697525 -2.39080524445 2.6433634758
8.1449508667 -2.41550755501 2.64480924606
13.940114975 -1.20476675034 3.53512477875
13.4907970428 -1.2294690609 3.53657031059
13.9648017883 -1.65406560898 3.53054428101
13.9418106079 -1.20926070213 3.98509860039
13.9664974213 -1.65855979919 3.98051810265
13.0414772034 -1.25417137146 3.53801608086
12.1428394318 -1.30357646942 3.54090762138
11.693520546 -1.32827877998 3.54235339165
13.0431728363 -1.25866556168 3.98799014091
3.91810274124 0.534229755402 -0.00996065884829
3.4687833786 0.509527206421 -0.00851492583752
3.0194644928 0.48482465744 -0.00706918537617
2.57014536858 0.460122585297 -0.0056234523654
5.74006605148 0.183740139008 -0.0203242376447
5.29074668884 0.159037590027 -0.0188785009086
4.84142780304 0.134335041046 -0.0174327641726
4.3921084404 0.109632968903 -0.0159870274365
3.94278931618 0.0849304199219 -0.0145412907004
5.764752388 -0.265558719635 -0.0249048620462
3.91979765892 0.529735565186 0.440013736486
3.47047829628 0.505033016205 0.441459447145
3.02115941048 0.480330467224 0.442905217409
2.57184028625 0.455628395081 0.444350928068
5.74176073074 0.179245948792 0.429650098085
5.29244184494 0.154543399811 0.431095808744
4.8431224823 0.12984085083 0.432541579008
4.3938035965 0.105138778687 0.433987289667
3.94448423386 0.0804362297058 0.435433059931
5.7664475441 -0.270052909851 0.425069481134
4.3708114624 0.549943447113 0.888542294502
3.9214925766 0.525240898132 0.889988064766
3.47217321396 0.500538349152 0.89143383503
3.02285432816 0.475835800171 0.892879605293
2.57353520393 0.451133728027 0.894325256348
5.74345588684 0.174751281738 0.87962448597
5.2941365242 0.150048732758 0.881070137024
4.84481716156 0.125346183777 0.882515907288
4.39549827576 0.100644111633 0.883961677551
3.94617915154 0.0759415626526 0.885407447815
5.76814222336 -0.274547576904 0.875043869019
3.92318749428 0.520746707916 1.33996236324
3.47386813164 0.496044158936 1.34140813351
3.02454924583 0.471341609955 1.34285378456
2.57523012161 0.446639537811 1.34429955482
5.7451505661 0.170257091522 1.32959878445
5.2958316803 0.145554542542 1.33104455471
4.84651231766 0.120851993561 1.33249020576
4.39719343185 0.0961499214172 1.33393597603
3.94787406921 0.0714473724365 1.33538174629
3.49855470657 0.0467448234558 1.33682751656
3.04923582077 0.0220422744751 1.33827316761
2.59991669655 -0.00265979766846 1.33971893787
5.76983737946 -0.27904176712 1.3250181675
4.42187976837 -0.353148937225 1.32935535908
3.97256064415 -0.377851486206 1.33080112934
3.52324128151 -0.402554035187 1.3322468996
3.07392239571 -0.427256584167 1.33369255066
2.62460327148 -0.451958656311 1.33513832092
3.99724721909 -0.827150344849 1.32622051239
3.09860897064 -0.87655544281 1.32911193371
2.64928984642 -0.901257514954 1.33055770397
2.67397642136 -1.35055661201 1.32597708702
3.92488241196 0.516252040863 1.78993678093
3.47556304932 0.491549491882 1.79138255119
3.02624416351 0.466846942902 1.79282820225
2.57692503929 0.442144870758 1.79427397251
5.7468457222 0.165762424469 1.77957320213
5.29752635956 0.141059875488 1.7810189724
4.84820747375 0.116357326508 1.78246462345
4.39888811111 0.091655254364 1.78391039371
3.94956898689 0.0669527053833 1.78535616398
3.50024962425 0.0422501564026 1.78680193424
3.05093073845 0.0175476074219 1.7882475853
5.77153205872 -0.283536434174 1.77499258518
5.32221317291 -0.308238983154 1.77643835545
4.87289381027 -0.332941532135 1.7778840065
4.42357492447 -0.357643604279 1.77932977676
3.97425556183 -0.382346153259 1.78077554703
3.52493619919 -0.40704870224 1.78222131729
3.07561731339 -0.431751251221 1.78366696835
2.62629818916 -0.456453323364 1.78511273861
5.79621887207 -0.732835292816 1.77041196823
5.34689950943 -0.757537841797 1.77185773849
4.89758062363 -0.782240390778 1.77330338955
4.44826126099 -0.806942462921 1.77474915981
3.99894237518 -0.831645011902 1.77619493008
3.10030412674 -0.881050109863 1.77908635139
5.82090520859 -1.18213415146 1.76583135128
5.37158632278 -1.20683670044 1.76727712154
4.92226696014 -1.231539011 1.7687227726
4.47294807434 -1.25624155998 1.77016854286
4.02362918854 -1.28094387054 1.77161431313
0.274176597595 1.23520851135 0.0107664912939
-0.175142765045 1.21050596237 0.0122122317553
-0.624461650848 1.18580341339 0.0136579722166
-1.07378101349 1.16110086441 0.0151037052274
2.09613966942 0.884718894958 0.000402919948101
1.6468205452 0.860016345978 0.00184865295887
1.19750070572 0.835313796997 0.00329439342022
0.748181819916 0.810611724854 0.00474012643099
0.298862934113 0.785909175873 0.00618585944176
-0.150455951691 0.761206626892 0.00763159990311
-0.599774837494 0.736504077911 0.00907734036446
2.12082624435 0.435420036316 -0.00417771190405
-0.575088500977 0.287205219269 0.00449670851231
-0.550401687622 -0.162094116211 -8.39233398438e-05
-0.525715351105 -0.611392974854 -0.00466455519199
-0.975034713745 -0.636095523834 -0.00321881473064
-0.50102853775 -1.0606918335 -0.00924517959356
-0.950347900391 -1.08539438248 -0.00779944658279
-0.925661563873 -1.5346930027 -0.0123800784349
0.275871276855 1.23071432114 0.460740834475
-0.173448085785 1.20601177216 0.462186604738
-0.622766971588 1.18130922318 0.463632315397
-1.07208633423 1.15660667419 0.465078085661
2.0978345871 0.880224704742 0.450377255678
1.64851570129 0.855522155762 0.451823025942
1.19919586182 0.830819606781 0.453268736601
0.749876976013 0.806117534637 0.454714506865
0.30055809021 0.781414985657 0.456160217524
-0.14876127243 0.756712436676 0.457605987787
-0.598080158234 0.732009887695 0.459051698446
2.12252116203 0.4309258461 0.445796638727
-0.573393344879 0.282711029053 0.454471081495
-1.02271270752 0.258008480072 0.455916851759
-0.548707008362 -0.166588306427 0.44989040494
-0.524020195007 -0.61588716507 0.445309787989
-0.973339557648 -0.64058971405 0.446755498648
-0.49933385849 -1.06518602371 0.440729171038
-0.94865322113 -1.08988857269 0.442174881697
2.22126746178 -1.36627006531 0.427474111319
1.77194881439 -1.39097261429 0.428919881582
1.32262897491 -1.41567492485 0.430365592241
-0.923966407776 -1.53918719292 0.437594264746
0.277566432953 1.22621965408 0.910715222359
-0.171752929688 1.2015171051 0.912160992622
2.09952950478 0.875730037689 0.900351643562
1.65021085739 0.851027488708 0.901797413826
1.20089101791 0.826324939728 0.90324306488
0.751572132111 0.801622867584 0.904688835144
0.302253246307 0.776920318604 0.906134605408
-0.147066116333 0.752217769623 0.907580375671
-0.596385002136 0.727515220642 0.909026026726
2.12421607971 0.426431179047 0.895771026611
1.67489719391 0.401728630066 0.897216796875
-0.571698665619 0.278216362 0.904445409775
-0.547011852264 -0.17108297348 0.899864792824
-0.522325515747 -0.620381832123 0.895284175873
-0.971644878387 -0.645084381104 0.896729946136
-0.497638702393 -1.06968069077 0.890703558922
-0.946958065033 -1.09438323975 0.892149329185
1.77364349365 -1.39546728134 0.878894209862
1.32432365417 -1.4201695919 0.880339980125
0.425685882568 -1.46957445145 0.883231401443
-0.023633480072 -1.49427700043 0.884677171707
-0.472952365875 -1.51897954941 0.886122941971
-0.922271728516 -1.54368185997 0.887568712234
0.279261112213 1.22172546387 1.36068964005
-0.17005777359 1.19702291489 1.3621352911
2.10122442245 0.871235847473 1.35032594204
1.65190553665 0.846533298492 1.35177159309
1.20258569717 0.821830749512 1.35321736336
0.753266811371 0.797128677368 1.35466313362
0.303947925568 0.772426128387 1.35610890388
-0.145371437073 0.747723579407 1.35755455494
-0.594690322876 0.723021030426 1.3590003252
2.12591099739 0.421936988831 1.34574532509
1.67659235001 0.39723443985 1.34719097614
1.22727251053 0.372531890869 1.34863674641
0.777953624725 0.347829818726 1.35008251667
0.328634738922 0.323127269745 1.35152828693
-0.120684623718 0.298424720764 1.35297393799
-0.570003509521 0.273722171783 1.35441970825
2.15059757233 -0.0273623466492 1.34116470814
1.70127868652 -0.0520648956299 1.34261035919
1.25195884705 -0.0767674446106 1.34405612946
0.802639961243 -0.101469516754 1.34550189972
-0.0959982872009 -0.150874614716 1.34839332104
-0.545317173004 -0.175577163696 1.3498390913
2.17528414726 -0.476661205292 1.33658409119
1.72596549988 -0.501363754272 1.33802974224
1.2766456604 -0.526066303253 1.3394755125
0.827326774597 -0.550768375397 1.34092128277
0.378007888794 -0.575470924377 1.34236705303
-0.52063035965 -0.624876022339 1.34525847435
-0.96994972229 -0.64957857132 1.34670424461
2.1999707222 -0.925960063934 1.33200347424
1.7506518364 -0.950662612915 1.33344912529
1.30133199692 -0.975365161896 1.33489489555
0.852013111115 -1.00006723404 1.33634066582
-0.495944023132 -1.07417488098 1.3406778574
-0.945263385773 -1.09887742996 1.34212362766
2.22465753555 -1.37525892258 1.32742285728
1.77533864975 -1.39996147156 1.32886850834
1.32601881027 -1.42466378212 1.3303142786
0.876699924469 -1.4493663311 1.33176004887
0.427381038666 -1.47406864166 1.33320581913
-0.0219383239746 -1.49877119064 1.33465147018
-0.471257209778 -1.52347373962 1.33609724045
-0.920576572418 -1.54817605019 1.33754301071
-0.143676280975 0.743228912354 1.80752897263
2.12760591507 0.417442321777 1.79571974277
2.22635245323 -1.37975358963 1.77739727497
1.77703332901 -1.40445613861 1.77884292603
1.32771348953 -1.42915844917 1.78028869629
-8.10968208313 -1.94341516495 1.36067473888
-9.9367313385 -1.57944297791 0.0211152881384
-10.8353691101 -1.62884783745 0.0240067616105
-11.2846889496 -1.65355014801 0.0254524946213
-9.91204452515 -2.02874183655 0.0165346562862
-10.8106822968 -2.07814669609 0.0194261297584
-11.2600021362 -2.10284900665 0.0208718627691
-9.93503570557 -1.58393716812 0.471089631319
-10.3843536377 -1.60863947868 0.472535401583
-10.8336734772 -1.63334202766 0.473981112242
-11.2829933167 -1.65804433823 0.475426882505
-11.7323112488 -1.68274688721 0.476872593164
-8.56239128113 -1.95912861824 0.462171822786
-9.01171112061 -1.98383116722 0.463617533445
-9.46103096008 -2.00853347778 0.465063303709
-9.91035079956 -2.03323602676 0.466509014368
-10.3596668243 -2.05793833733 0.467954784632
-10.8089866638 -2.08264088631 0.469400495291
-11.2583065033 -2.10734319687 0.470846265554
-11.7076244354 -2.13204574585 0.472291976213
-10.3826599121 -1.61313414574 0.922509789467
-10.8319797516 -1.63783669472 0.923955440521
-11.7306175232 -1.68724155426 0.926846981049
-8.56069564819 -1.96362328529 0.91214621067
-9.01001548767 -1.98832583427 0.913591861725
-9.45933532715 -2.01302814484 0.915037631989
-9.90865516663 -2.03773069382 0.916483402252
-10.3579730988 -2.06243300438 0.917929172516
-10.8072929382 -2.08713555336 0.91937482357
-11.2566127777 -2.11183786392 0.920820593834
-11.7059307098 -2.1365404129 0.922266364098
-10.8302841187 -1.64233088493 1.37392985821
-11.2796039581 -1.6670331955 1.37537550926
-8.55900192261 -1.96811747551 1.36212050915
-9.00831985474 -1.99282002449 1.36356627941
-9.45763969421 -2.01752233505 1.36501193047
-9.90695953369 -2.04222488403 1.36645770073
-10.3562774658 -2.0669271946 1.36790347099
-10.8055973053 -2.09162974358 1.36934924126
-11.2549171448 -2.11633205414 1.37079489231
-10.8285884857 -1.64682555199 1.82390427589
-11.2779083252 -1.67152786255 1.82534992695
-9.00662612915 -1.99731469154 1.8135406971
-9.45594596863 -2.02201700211 1.81498634815
-9.90526580811 -2.04671955109 1.81643211842
-10.3545818329 -2.07142186165 1.81787788868
-10.8039016724 -2.09612441063 1.81932365894
-11.2532215118 -2.12082672119 1.82076931
-15.3762397766 -0.981768608093 0.497599691153
-13.1049575806 -1.30755519867 0.485790401697
-13.55427742 -1.33225774765 0.487236171961
-14.0035953522 -1.35696029663 0.48868188262
-14.4529151917 -1.38166284561 0.490127652884
-14.9022331238 -1.40636491776 0.491573363543
-15.3515529633 -1.43106746674 0.493019074202
-12.1816329956 -1.70744943619 0.478318303823
-12.6309509277 -1.73215174675 0.479764074087
-13.0802707672 -1.75685405731 0.481209784746
-13.5295906067 -1.78155660629 0.48265555501
-13.9789085388 -1.80625915527 0.484101265669
-14.4282283783 -1.83096170425 0.485547035933
-14.8775463104 -1.8556637764 0.486992746592
-15.3268661499 -1.88036632538 0.488438457251
-12.1569461823 -2.15674829483 0.473737686872
-12.6062641144 -2.18145060539 0.475183457136
-13.0555839539 -2.20615291595 0.476629167795
-13.5049037933 -2.23085546494 0.478074938059
-13.9542217255 -2.25555801392 0.479520648718
-14.4035415649 -2.2802605629 0.480966418982
-14.8528594971 -2.30496263504 0.482412129641
-15.3021793365 -2.32966518402 0.4838578403
-15.3498573303 -1.43556213379 0.94299352169
-12.17993927 -1.71194410324 0.928292751312
-12.6292572021 -1.7366464138 0.929738402367
-13.0785770416 -1.76134872437 0.93118417263
-13.5278968811 -1.78605127335 0.932629942894
-13.9772148132 -1.81075382233 0.934075713158
-14.4265346527 -1.83545637131 0.935521364212
-14.8758525848 -1.86015844345 0.936967134476
-12.1552524567 -2.16124296188 0.923712015152
-12.6045703888 -2.18594527245 0.925157785416
-13.0538902283 -2.21064758301 0.926603555679
-13.9525279999 -2.26005268097 0.929495096207
-14.4018478394 -2.28475522995 0.930940747261
-14.8511657715 -2.30945730209 0.932386517525
-15.851940155 -0.552677631378 0.0536517500877
-17.6492156982 -0.651487350464 0.0594346821308
-18.0985336304 -0.676189899445 0.0608804225922
-15.8272533417 -1.00197696686 0.049071110785
-16.2765731812 -1.02667951584 0.0505168437958
-17.6245307922 -1.10078668594 0.0548540651798
-18.0738487244 -1.12548923492 0.05629979074
-18.049161911 -1.57478809357 0.0517191588879
-16.6765193939 -1.94997954369 0.042801335454
-18.0244750977 -2.02408695221 0.0471385419369
-15.7531929016 -2.34987354279 0.0353292226791
-16.2025127411 -2.37457609177 0.0367749631405
-16.6518325806 -2.39927840233 0.0382207036018
-15.8502445221 -0.557171821594 0.50362610817
-17.1982021332 -0.631278991699 0.507963299751
-17.6475219727 -0.65598154068 0.509409070015
-15.8255577087 -1.00647115707 0.499045461416
-16.2748775482 -1.03117370605 0.500491142273
-16.7241973877 -1.05587625504 0.501936912537
-17.1735153198 -1.08057832718 0.5033826828
-17.6228351593 -1.10528087616 0.504828453064
-18.0721530914 -1.12998342514 0.506274104118
-15.8008708954 -1.45577001572 0.494464844465
-16.2501907349 -1.4804725647 0.495910555124
-16.6995105743 -1.50517487526 0.497356325388
-17.1488285065 -1.52987718582 0.498802036047
-17.5981483459 -1.5545797348 0.500247836113
-18.0474662781 -1.57928228378 0.501693487167
-15.776184082 -1.90506887436 0.489884227514
-16.2255039215 -1.92977142334 0.491329938173
-16.674823761 -1.9544737339 0.492775708437
-17.1241416931 -1.97917604446 0.494221419096
-17.5734615326 -2.00387859344 0.49566718936
-18.0227794647 -2.02858114243 0.497112900019
-15.7514972687 -2.354367733 0.485303610563
-16.2008171082 -2.37907028198 0.486749321222
-16.6501369476 -2.40377259254 0.488195091486
-17.0994548798 -2.42847490311 0.489640802145
-17.5487747192 -2.45317745209 0.491086572409
-15.8238620758 -1.01096582413 0.949019789696
-17.6211395264 -1.10977554321 0.954802751541
-15.7991752625 -1.46026468277 0.944439172745
-17.1471328735 -1.53437185287 0.948776483536
-18.0457706451 -1.58377695084 0.951667904854
-18.0210857391 -2.03307580948 0.947087287903
4.49085474014 -1.68756270409 -0.0343095399439
4.04153585434 -1.71226501465 -0.0328638032079
3.59221625328 -1.73696756363 -0.0314180664718
3.14289736748 -1.76166987419 -0.0299723297358
2.69357824326 -1.78637242317 -0.028526596725
4.9648604393 -2.11215925217 -0.0403359048069
4.5155415535 -2.13686180115 -0.0388901680708
4.06622219086 -2.16156411171 -0.0374444313347
3.61690282822 -2.18626666069 -0.0359986945987
3.16758394241 -2.21096897125 -0.0345529615879
2.71826505661 -2.23567152023 -0.0331072211266
3.19227075577 -2.66026806831 -0.0391335934401
2.74295163155 -2.68497061729 -0.0376878529787
3.2169573307 -3.10956692696 -0.0437142178416
2.76763820648 -3.13426947594 -0.0422684811056
4.58960103989 -3.48475837708 -0.0526320561767
4.14028215408 -3.50946092606 -0.0511863194406
3.69096279144 -3.53416347504 -0.0497405827045
3.24164390564 -3.5588657856 -0.0482948496938
2.79232478142 -3.58356833458 -0.0468491092324
4.61428785324 -3.93405771255 -0.0572126880288
4.1649684906 -3.95876002312 -0.0557669512928
3.71564936638 -3.98346233368 -0.0543212145567
3.26633048058 -4.00816488266 -0.0528754778206
4.18965530396 -4.40805912018 -0.0603475794196
3.74033594131 -4.43276119232 -0.0589018426836
3.29101705551 -4.4574637413 -0.0574561059475
4.0432305336 -1.71675944328 0.417110532522
3.59391117096 -1.74146199226 0.418556272984
3.14459228516 -1.76616430283 0.420002013445
2.69527316093 -1.79086685181 0.421447753906
4.51723623276 -2.14135622978 0.411084204912
4.06791734695 -2.16605854034 0.412529915571
3.61859798431 -2.19076108932 0.413975656033
2.71995997429 -2.24016594887 0.416867136955
2.76933312416 -3.13876390457 0.407705873251
4.14197731018 -3.51395535469 0.398788034916
3.69265770912 -3.53865766525 0.400233775377
3.24333882332 -3.56336021423 0.401679515839
2.7940196991 -3.58806276321 0.4031252563
4.1666636467 -3.96325445175 0.394207388163
3.71734428406 -3.98795700073 0.395653128624
3.26802539825 -4.01265907288 0.397098869085
4.19134998322 -4.41255331039 0.389626771212
3.74203085899 -4.43725585938 0.391072511673
3.29271197319 -4.46195793152 0.392518252134
4.0449256897 -1.72125387192 0.867084980011
3.59560632706 -1.7459564209 0.868530631065
3.14628744125 -1.77065873146 0.869976401329
2.69696807861 -1.79536128044 0.871422171593
4.06961202621 -2.17055296898 0.862504243851
3.62029290199 -2.19525551796 0.863950014114
3.22034716606 -3.11855578423 0.856234550476
2.77102804184 -3.14325833321 0.85768020153
4.14367198944 -3.51844978333 0.848762392998
3.6943526268 -3.54315209389 0.850208163261
3.245033741 -3.56785440445 0.851653933525
2.79571461678 -3.59255695343 0.853099584579
4.1683588028 -3.96774864197 0.844181776047
3.26972031593 -4.01715373993 0.847073316574
2.82040119171 -4.04185581207 0.848518967628
5.9903216362 -4.31823778152 0.83381819725
5.54100227356 -4.34294033051 0.835263848305
5.09168338776 -4.36764287949 0.836709618568
4.64236450195 -4.39234542847 0.838155388832
4.19304513931 -4.41704750061 0.839601159096
3.74372577667 -4.44175004959 0.84104681015
3.29440689087 -4.46645259857 0.842492580414
6.01500844955 -4.767537117 0.829237580299
5.56568908691 -4.79223918915 0.830683231354
4.04662036896 -1.72574806213 1.31705927849
3.14798235893 -1.77515292168 1.31995069981
2.69866323471 -1.79985547066 1.32139647007
4.07130718231 -2.17504715919 1.31247866154
3.24672865868 -3.5723490715 1.30162811279
3.27141523361 -4.02164793015 1.29704749584
2.82209610939 -4.04635047913 1.29849326611
5.9920167923 -4.32273244858 1.28379249573
5.54269742966 -4.34743499756 1.28523826599
5.09337806702 -4.3721370697 1.28668391705
4.64405918121 -4.39683961868 1.28812968731
4.19474029541 -4.42154216766 1.28957545757
3.74542069435 -4.44624471664 1.29102122784
3.29610180855 -4.47094678879 1.29246687889
2.84678268433 -4.49564933777 1.29391264915
6.01670312881 -4.77203130722 1.27921187878
5.56738424301 -4.7967338562 1.28065764904
5.11806488037 -4.82143640518 1.28210330009
4.66874599457 -4.84613847733 1.28354907036
4.21942663193 -4.87084102631 1.28499484062
3.77010726929 -4.89554357529 1.28644061089
3.32078838348 -4.92024612427 1.28788626194
2.87146925926 -4.94494819641 1.2893320322
5.84559202194 -1.63143277168 1.76125073433
5.3962726593 -1.65613532066 1.76269650459
4.9469537735 -1.68083763123 1.76414215565
5.87027835846 -2.08073186874 1.75667011738
5.42095947266 -2.10543441772 1.75811588764
4.97164058685 -2.13013672829 1.7595615387
3.27311015129 -4.0261425972 1.74702191353
2.82379102707 -4.05084514618 1.74846768379
5.09507322311 -4.37663173676 1.73665833473
4.64575386047 -4.4013338089 1.738104105
4.19643497467 -4.42603635788 1.73954987526
3.74711561203 -4.45073890686 1.74099564552
3.29779672623 -4.47544145584 1.74244129658
2.84847760201 -4.50014400482 1.74388706684
6.01839828491 -4.77652549744 1.72918629646
5.56907892227 -4.80122804642 1.73063206673
5.11976003647 -4.8259305954 1.73207771778
4.22112178802 -4.87533521652 1.73496925831
3.77180218697 -4.9000377655 1.73641502857
3.32248330116 -4.92474031448 1.73786067963
2.87316417694 -4.94944286346 1.73930644989
2.24425911903 -1.81107473373 -0.0270808562636
-0.900974750519 -1.98399186134 -0.0169607028365
2.26894569397 -2.2603738308 -0.0316614881158
-0.876288414001 -2.4332909584 -0.0215413309634
2.29363250732 -2.70967292786 -0.0362421199679
-0.851601600647 -2.88259005547 -0.0261219628155
2.31831908226 -3.1589717865 -0.0408227443695
1.86899995804 -3.18367433548 -0.0393770076334
-0.82691526413 -3.33188891411 -0.0307025909424
2.3430056572 -3.60827064514 -0.0454033762217
-0.802228450775 -3.78118777275 -0.0352832190692
0.570415496826 -4.15637969971 -0.0442010611296
0.595102310181 -4.60567855835 -0.0487816855311
-0.303535938263 -4.65508317947 -0.045890212059
-0.752855300903 -4.67978572845 -0.0444444790483
1.5184264183 -5.00557231903 -0.0562537871301
1.0691075325 -5.03027486801 -0.0548080503941
0.619788646698 -5.05497741699 -0.0533623173833
0.170469284058 -5.07967996597 -0.0519165806472
-0.278849601746 -5.10438251495 -0.0504708439112
-0.728168964386 -5.1290845871 -0.0490251071751
2.24595403671 -1.81556916237 0.422893494368
1.79663515091 -1.84027171135 0.424339234829
-0.899280071259 -1.98848628998 0.433013647795
2.27064085007 -2.26486825943 0.418312877417
1.82132196426 -2.28957080841 0.419758617878
-0.874593257904 -2.43778538704 0.428433030844
2.295327425 -2.71416735649 0.413732230663
1.84600830078 -2.73886990547 0.415177971125
1.3966884613 -2.76357221603 0.416623711586
-0.849906921387 -2.8870844841 0.42385238409
2.32001399994 -3.16346621513 0.409151613712
1.87069511414 -3.18816876411 0.410597354174
1.42137527466 -3.21287107468 0.412043094635
-0.825220108032 -3.33638334274 0.419271767139
2.34470057487 -3.61276531219 0.404570996761
-0.800533771515 -3.78568220139 0.414691150188
-0.751160621643 -4.68428039551 0.405529886484
1.5201215744 -5.01006698608 0.393720567226
1.0708026886 -5.03476953506 0.395166307688
0.621483802795 -5.05947160721 0.396612018347
0.172164440155 -5.08417415619 0.398057758808
-0.277154445648 -5.10887670517 0.399503499269
-0.726473808289 -5.13357925415 0.400949239731
2.24764919281 -1.820063591 0.872867822647
1.79833030701 -1.84476613998 0.874313592911
1.34901046753 -1.86946845055 0.875759363174
-0.897584915161 -1.99298071861 0.882988095284
1.82301664352 -2.29406523705 0.86973297596
1.37369680405 -2.31876754761 0.871178627014
0.924377918243 -2.34347009659 0.872624397278
-0.872898578644 -2.44227981567 0.878407359123
1.84770345688 -2.74336433411 0.865152359009
1.3983836174 -2.76806664467 0.866598010063
0.949064731598 -2.79276919365 0.868043780327
0.499745845795 -2.81747150421 0.869489550591
0.0504264831543 -2.84217405319 0.870935320854
-0.398892402649 -2.86687660217 0.872380971909
-0.848211765289 -2.89157891273 0.873826742172
2.32170891762 -3.16796064377 0.859125971794
1.8723897934 -3.19266319275 0.860571742058
1.42306995392 -3.21736574173 0.862017393112
0.973751068115 -3.24206805229 0.863463163376
0.524432182312 -3.26677036285 0.86490893364
0.0751128196716 -3.29147291183 0.866354703903
-0.374206066132 -3.31617546082 0.867800354958
-0.823525428772 -3.34087777138 0.869246125221
1.89707660675 -3.64196205139 0.855991125107
1.44775676727 -3.66666436195 0.857436776161
0.99843788147 -3.69136667252 0.858882546425
0.549118995667 -3.7160692215 0.860328316689
0.0997996330261 -3.74077177048 0.861774086952
-0.349519252777 -3.76547408104 0.863219738007
-0.798838615417 -3.7901763916 0.86466550827
2.37108206749 -4.06655883789 0.849964737892
1.92176294327 -4.09126091003 0.851410508156
-0.7741522789 -4.23947572708 0.860084891319
-0.749465465546 -4.68877458572 0.855504274368
1.5218167305 -5.0145611763 0.843694925308
1.0724978447 -5.03926372528 0.845140695572
0.623178958893 -5.06396627426 0.846586346626
0.173859596252 -5.08866882324 0.84803211689
-0.275459289551 -5.11337089539 0.849477887154
-0.724778652191 -5.13807344437 0.850923657417
2.24934411049 -1.82455778122 1.32284224033
1.80002498627 -1.8492603302 1.32428789139
1.35070514679 -1.87396264076 1.32573366165
0.901386260986 -1.89866518974 1.32717943192
0.452067375183 -1.92336750031 1.32862520218
-0.44657087326 -1.97277259827 1.3315166235
-0.895890235901 -1.99747490883 1.33296239376
0.926073074341 -2.3479642868 1.32259881496
0.476754188538 -2.37266659737 1.32404458523
0.0274348258972 -2.39736914635 1.32549023628
-0.421884059906 -2.42207145691 1.32693600655
-0.871203422546 -2.44677400589 1.32838177681
0.950759410858 -2.79726338387 1.31801819801
0.501440525055 -2.82196569443 1.31946396828
0.0521211624146 -2.84666824341 1.32090961933
-0.397197723389 -2.87137079239 1.3223553896
-0.846517086029 -2.89607310295 1.32380115986
0.975446224213 -3.24656224251 1.31343758106
0.526127338409 -3.27126455307 1.31488335133
0.076807975769 -3.29596710205 1.31632900238
-0.821830272675 -3.34537196159 1.31922054291
1.00013256073 -3.69586133957 1.3088568449
0.550813674927 -3.72056365013 1.31030261517
0.101494312286 -3.74526596069 1.31174826622
-0.347824573517 -3.76996850967 1.31319403648
-0.797143936157 -3.79467105865 1.31463980675
2.37277698517 -4.07105302811 1.29993903637
1.92345809937 -4.09575557709 1.30138468742
1.47413825989 -4.12045764923 1.30283045769
-0.772457122803 -4.2439699173 1.3100591898
-0.747770309448 -4.69326877594 1.30547857285
1.52351140976 -5.01905584335 1.29366922379
1.07419252396 -5.0437579155 1.29511499405
0.624873638153 -5.06846046448 1.29656076431
0.175554275513 -5.09316301346 1.29800641537
-0.273764610291 -5.11786556244 1.29945218563
-0.723083972931 -5.14256811142 1.30089795589
2.25103902817 -1.82905220985 1.77281665802
1.80172014236 -1.85375475883 1.77426230907
-0.820135593414 -3.34986639023 1.76919496059
1.00182771683 -3.70035552979 1.75883126259
0.552508831024 -3.72505807877 1.76027703285
0.103189468384 -3.74976062775 1.76172268391
-0.346129417419 -3.77446293831 1.76316845417
-0.79544878006 -3.79916524887 1.76461422443
2.37447190285 -4.07554721832 1.74991345406
1.92515325546 -4.1002497673 1.75135910511
1.47583341599 -4.12495231628 1.75280487537
1.02651453018 -4.14965486526 1.75425064564
0.577195644379 -4.17435741425 1.7556964159
0.127876281738 -4.19905948639 1.75714206696
-0.321442604065 -4.22376203537 1.75858783722
-0.770761966705 -4.24846458435 1.76003360748
2.39915847778 -4.52484607697 1.7453328371
1.94983959198 -4.54954862595 1.74677848816
1.5005197525 -4.57425117493 1.74822425842
1.0512008667 -4.59895324707 1.74967002869
0.601881980896 -4.62365579605 1.75111579895
0.152562618256 -4.64835834503 1.75256145
-0.296756267548 -4.67306089401 1.75400722027
-0.746075630188 -4.69776344299 1.75545299053
2.42384505272 -4.97414541245 1.74075222015
1.97452640533 -4.99884748459 1.74219787121
1.52520656586 -5.02355003357 1.74364364147
1.07588768005 -5.04825258255 1.74508941174
0.62656879425 -5.07295513153 1.746535182
0.17724943161 -5.09765720367 1.74798083305
-0.272069454193 -5.12235975266 1.74942660332
-0.721388816833 -5.14706230164 1.75087237358
1.07758235931 -5.05274677277 2.195063591
0.628263473511 -5.07744932175 2.19650936127
0.17894411087 -5.10215187073 2.19795513153
-0.270374774933 -5.12685441971 2.19940090179
-0.719694137573 -5.15155649185 2.20084667206
1.07927751541 -5.05724143982 2.64503788948
-0.268679618835 -5.13134860992 2.64937520027
-0.717998981476 -5.15605115891 2.65082097054
1.95492458344 -4.56303167343 3.09670138359
1.50560474396 -4.58773422241 3.09814715385
-0.740990638733 -4.71124649048 3.10537576675
1.53029108047 -5.03703308105 3.09356665611
1.08097219467 -5.06173563004 3.09501218796
0.182333946228 -5.111140728 3.09790372849
-0.716304302216 -5.16054534912 3.10079526901
-1.35029363632 -2.00869441032 -0.0155149661005
-1.3256072998 -2.45799350739 -0.0200955942273
-3.12288427353 -2.55680322647 -0.0143126472831
-3.57220315933 -2.58150553703 -0.0128669142723
-4.02152204514 -2.60620808601 -0.011421173811
-4.47084093094 -2.63091039658 -0.00997544080019
-1.30092048645 -2.90729260445 -0.0246762260795
-2.64887857437 -2.98139977455 -0.0203390158713
-3.09819841385 -3.00610232353 -0.0188932791352
-1.27623414993 -3.35659122467 -0.029256850481
-1.72555351257 -3.38129377365 -0.0278111174703
-4.39678144455 -3.97880721092 -0.0237173289061
-2.57481813431 -4.3292965889 -0.0340809002519
-3.02413797379 -4.35399913788 -0.0326351672411
-3.47345685959 -4.37870168686 -0.031189430505
-3.92277574539 -4.403403759 -0.029743693769
-4.3720946312 -4.42810630798 -0.0282979607582
-1.20217418671 -4.70448827744 -0.0429987385869
-1.65149354935 -4.72919082642 -0.0415530055761
-2.10081243515 -4.75389289856 -0.0401072688401
-2.55013227463 -4.77859544754 -0.038661532104
-1.32391214371 -2.46248793602 0.429878741503
-3.12118959427 -2.56129765511 0.435661703348
-3.57050848007 -2.58599996567 0.437107473612
-4.01982736588 -2.61070251465 0.438553184271
-4.46914625168 -2.63540482521 0.43999889493
-1.29922580719 -2.91178703308 0.425298124552
-2.64718294144 -2.98589420319 0.429635316133
-3.09650278091 -3.01059675217 0.431081086397
-3.54582166672 -3.03529906273 0.432526797056
-1.27453899384 -3.36108589172 0.420717507601
-1.72385835648 -3.38578820229 0.422163248062
-3.49644899368 -3.93389678001 0.423365563154
-3.94576787949 -3.95859932899 0.424811333418
-4.39508676529 -3.98330163956 0.426257044077
-2.57312345505 -4.33379125595 0.415893465281
-3.02244329453 -4.35849332809 0.41733917594
-3.47176218033 -4.38319587708 0.418784916401
-3.92108106613 -4.40789842606 0.420230656862
-4.37039995193 -4.43260097504 0.421676397324
-1.20047950745 -4.70898246765 0.406975626945
-1.64979887009 -4.73368501663 0.408421367407
-2.09911680222 -4.75838756561 0.409867107868
-2.54843664169 -4.78308963776 0.41131284833
-1.34690380096 -2.01768326759 0.884433746338
-1.32221746445 -2.46698236465 0.879853129387
-3.11949491501 -2.56579208374 0.885636091232
-3.56881380081 -2.5904943943 0.887081742287
-4.01813268661 -2.61519694328 0.88852751255
-4.46745157242 -2.63989925385 0.889973282814
-1.29753065109 -2.91628146172 0.875272512436
-2.1961684227 -2.96568632126 0.878163933754
-2.64548826218 -2.99038863182 0.879609704018
-3.09480810165 -3.0150911808 0.881055474281
-3.54412698746 -3.03979349136 0.882501125336
-3.99344587326 -3.06449604034 0.883946895599
-4.44276475906 -3.08919835091 0.885392665863
-1.27284431458 -3.36558008194 0.870691895485
-1.72216367722 -3.39028263092 0.872137546539
-2.17148160934 -3.4149851799 0.873583316803
-2.62080144882 -3.43968749046 0.875029087067
-1.24815750122 -3.81487894058 0.866111278534
-1.69747686386 -3.83958148956 0.867556929588
-3.04543542862 -3.91368865967 0.871894240379
-3.49475431442 -3.93839120865 0.873339891434
-3.94407320023 -3.96309351921 0.874785661697
-4.39339208603 -3.98779606819 0.876231431961
-1.2234711647 -4.26417827606 0.861530661583
-1.67279052734 -4.28888034821 0.862976312637
-2.12210893631 -4.31358289719 0.864422082901
-2.57142877579 -4.33828544617 0.865867853165
-3.02074861526 -4.36298799515 0.867313623428
-3.47006750107 -4.38769006729 0.868759274483
-3.91938638687 -4.41239261627 0.870205044746
-4.36870527267 -4.43709516525 0.87165081501
-1.19878435135 -4.7134771347 0.856949925423
-1.64810371399 -4.73817920685 0.858395695686
-2.09742212296 -4.76288175583 0.85984146595
-2.54674196243 -4.78758430481 0.861287117004
-1.32052230835 -2.47147655487 1.32982742786
-4.46575689316 -2.64439344406 1.33994758129
-1.29583597183 -2.92077565193 1.32524681091
-2.64379358292 -2.99488282204 1.3295841217
-3.09311342239 -3.01958537102 1.33102977276
-3.5424323082 -3.04428768158 1.33247554302
-3.991751194 -3.06899023056 1.33392131329
-4.4410700798 -3.09369254112 1.33536696434
-1.27114915848 -3.37007427216 1.32066619396
-2.16978693008 -3.41947937012 1.32355773449
-2.61910676956 -3.44418168068 1.32500350475
-3.06842660904 -3.46888422966 1.32644915581
-3.51774549484 -3.49358654022 1.32789492607
-3.96706438065 -3.5182890892 1.32934069633
-4.41638326645 -3.54299139977 1.33078634739
-1.24646282196 -3.81937336922 1.3160854578
-2.14510011673 -3.86877822876 1.31897699833
-2.59441995621 -3.89348077774 1.32042276859
-3.04373979568 -3.9181830883 1.32186841965
-3.49305868149 -3.94288563728 1.32331418991
-3.94237756729 -3.96758794785 1.32475996017
-4.39169645309 -3.99229049683 1.32620561123
-1.22177600861 -4.26867246628 1.31150484085
-2.12041425705 -4.3180770874 1.31439638138
-2.56973409653 -4.34277963638 1.31584215164
-3.019053936 -4.36748218536 1.3172878027
-3.46837186813 -4.39218473434 1.31873357296
-3.91769170761 -4.41688728333 1.32017934322
-1.19708919525 -4.71797132492 1.3069242239
-1.26945447922 -3.37456893921 1.77064061165
-1.24476766586 -3.82386779785 1.76605987549
-1.22008085251 -4.27316665649 1.76147925854
-1.66940021515 -4.29786920547 1.7629250288
-1.19539451599 -4.72246551514 1.75689864159
-1.64471387863 -4.74716806412 1.75834441185
-1.19369935989 -4.72696018219 2.20687294006
-1.64301872253 -4.75166273117 2.20831871033
-2.0923371315 -4.77636480331 2.20976424217
-2.58933496475 -3.90696382523 2.67034554482
-3.48797369003 -3.95636868477 2.67323708534
-3.01396894455 -4.38096523285 2.66721081734
-3.46328783035 -4.40566778183 2.6686565876
-1.19200468063 -4.73145437241 2.65684723854
-1.64132404327 -4.75615692139 2.6582930088
-2.09064245224 -4.78085947037 2.65973854065
-2.53996229172 -4.80556201935 2.66118431091
-2.9892821312 -4.83026409149 2.66263008118
-3.438601017 -4.85496664047 2.66407585144
-1.16731786728 -5.18075370789 2.6522667408
-3.03696012497 -3.93616080284 3.12176561356
-3.48627901077 -3.9608631134 3.12321138382
-3.93559789658 -3.98556566238 3.12465715408
-3.01227331161 -4.3854598999 3.11718511581
-3.46159219742 -4.41016244888 3.11863088608
-3.91091108322 -4.43486452103 3.12007665634
-1.19030952454 -4.73594903946 3.10682153702
-1.63962888718 -4.7606511116 3.10826730728
-2.08894777298 -4.78535366058 3.10971283913
-2.53826761246 -4.81005620956 3.11115860939
-2.98758745193 -4.83475875854 3.11260437965
-3.43690633774 -4.85946083069 3.11405014992
-1.16562318802 -5.1852478981 3.10224103928
-4.9448466301 -2.2063138485 -0.00394907593727
-5.39416646957 -2.23101615906 -0.00250333547592
